71.1265 42.691 14.0106
72.112 43.4631 15.649
72.2376 43.5572 15.2409
72.4322 43.7079 14.1738
72.4761 43.7455 13.6214
72.5326 43.7895 12.9623
72.8088 44.0029 12.9121
73.0724 44.2163 12.8431
73.4553 44.5113 12.931
73.5746 44.5992 12.4413
73.832 44.8064 12.3283
74.1082 45.0261 12.2154
74.3969 45.2458 12.1902
74.6857 45.4717 12.1589
75.0309 45.7417 12.2342
75.3008 45.9488 12.1526
75.8406 46.3631 12.818
75.6147 46.1999 12.2718
76.2487 46.6832 12.9561
77.0019 47.267 12.4602
77.2656 47.4742 12.3409
77.7928 47.8822 12.9121
77.5794 47.7252 12.4099
78.86 48.717 13.3076
78.6277 48.535 12.7489
79.1362 48.9305 13.226
79.9459 49.5645 13.6654
80.3414 49.872 13.8286
80.6992 50.1482 13.9416
80.6238 50.0917 13.0314
81.0507 50.4244 13.2825
81.6596 50.9015 14.0357
81.3143 50.6316 13.1883
81.9232 51.1024 13.9855
82.2685 51.3723 14.0797
82.5823 51.6171 14.1236
82.846 51.8242 14.0232
82.5007 51.5606 13.1758
83.1159 52.0314 13.8474
83.5427 52.3703 14.1236
83.844 52.6026 14.1236
84.0951 52.7972 13.9479
84.3839 53.0232 13.9165
84.8107 53.3559 14.2554
85.5514 53.9334 15.3037
85.7899 54.1154 15.1593
85.7837 54.1091 14.4437
87.4032 55.3708 17.6451
86.8382 54.9314 16.2453
35.0579 14.1111 14.6446
35.4722 14.4375 14.8329
35.83 14.7137 14.8957
36.1439 14.9647 14.9208
36.4515 15.2033 14.9083
36.7653 15.4481 14.902
37.0729 15.6866 14.9083
37.3679 15.9189 14.8204
37.6692 16.1449 14.7262
37.9517 16.3708 14.6383
38.2656 16.6156 14.607
38.6045 16.8793 14.6132
38.8996 17.1115 14.5756
39.2385 17.3752 14.6195
39.5587 17.6263 14.6321
39.8662 17.8648 14.6383
40.1864 18.1159 14.676
40.5505 18.3921 14.7199
40.9145 18.6808 14.8078
41.3414 19.0135 15.0212
41.7243 19.3085 15.1531
42.0821 19.591 15.2284
42.4587 19.8798 15.3602
42.8102 20.156 15.4293
43.1366 20.4133 15.4983
43.4944 20.6895 15.5736
43.8397 20.9594 15.6615
44.1975 21.2419 15.7243
44.5553 21.5181 15.7682
44.9194 21.8006 15.8436
45.252 22.0579 15.8812
45.5973 22.3279 15.9252
45.9237 22.5852 15.944
46.2438 22.83 15.9628
46.564 23.0811 15.9942
46.859 23.3071 15.9503
47.154 23.5394 15.944
47.5244 23.8281 16.013
47.8759 24.1043 16.0507
48.2274 24.3742 16.1135
48.5538 24.6316 16.126
48.8928 24.8952 16.1511
49.2129 25.1463 16.1888
49.5205 25.3848 16.1574
49.8469 25.6422 16.2139
50.142 25.8682 16.1888
50.4433 26.1067 16.1637
50.7822 26.3704 16.17
51.0835 26.6026 16.1009
51.4162 26.86 16.1386
51.7175 27.0985 16.0758
52.0377 27.3433 16.0946
52.3515 27.5881 16.0821
52.6968 27.858 16.1574
52.9981 28.0903 16.1511
53.3182 28.3414 16.17
53.6321 28.5862 16.1951
53.9773 28.8561 16.2327
54.31 29.1135 16.2327
54.6238 29.3583 16.2076
54.9189 29.5905 16.1511
55.2704 29.8605 16.2076
55.578 30.1053 16.1951
55.8918 30.3501 16.2139
56.1994 30.5886 16.2076
56.5258 30.8397 16.2641
56.8397 31.0845 16.3018
57.2414 31.3984 16.465
57.6243 31.6997 16.5843
57.9507 31.9507 16.6031
58.2834 32.2081 16.6282
58.591 32.4529 16.5968
58.8923 32.6852 16.5717
59.1685 32.8986 16.4964
59.4447 33.1183 16.4211
59.7209 33.3317 16.3583
60.0034 33.5514 16.3206
60.311 33.79 16.2641
60.606 34.0222 16.1888
60.9073 34.2607 16.1449
61.2086 34.493 16.1072
61.4973 34.719 16.0381
61.8426 34.9826 16.1197
62.1627 35.2337 16.1197
62.4829 35.4848 16.17
62.7779 35.7108 16.1449
63.0478 35.9305 16.1009
63.3679 36.1753 16.0758
63.6755 36.4201 16.0256
63.9517 36.6272 15.9
64.2844 36.8909 15.9628
64.5857 37.1231 15.9063
64.8682 37.3491 15.8373
65.182 37.5876 15.8687
65.4519 37.8011 15.7933
65.7093 38.0019 15.6803
65.9478 38.1902 15.5548
66.2303 38.4099 15.4418
66.5505 38.661 15.4104
66.8141 38.8619 15.2786
67.128 39.1067 15.2849
67.4481 39.3578 15.2786
67.6992 39.5524 15.1405
67.9252 39.7281 14.9522
68.17 39.9227 14.8015
68.352 40.0671 14.5442
68.6282 40.2805 14.4877
68.9609 40.5379 14.4877
69.3438 40.8392 14.6321
69.6576 41.084 14.607
69.9338 41.2974 14.5191
70.1912 41.4983 14.381
70.4172 41.6741 14.1864
70.662 41.8624 14.0232
70.8629 42.0193 13.8035
71.0826 42.1951 13.6089
72.0304 42.9295 15.1531
71.3148 42.3708 13.4331
72.3505 43.1806 15.1468
72.0555 42.9546 14.45
72.4259 43.2434 14.5567
72.5577 43.3375 14.0922
72.3757 43.2057 12.9247
72.633 43.4066 12.7552
72.9029 43.6137 12.661
73.2231 43.8648 12.7112
73.5055 44.0845 12.6485
73.7064 44.2414 12.4162
73.9324 44.4172 12.2656
74.2086 44.6369 12.1338
74.5664 44.9131 12.2028
74.7798 45.0826 11.9768
75.0686 45.3085 11.9141
75.4452 45.5973 12.0459
75.7653 45.8484 12.0647
76.437 46.3631 12.9498
76.029 46.0492 11.9705
76.5939 46.4886 12.6296
76.8387 46.677 12.4853
77.1651 46.9343 12.5606
77.5167 47.2042 12.6234
78.0063 47.5872 13.0251
78.4645 47.9387 13.3641
78.7909 48.196 13.408
79.0922 48.4346 13.3829
79.5442 48.7861 13.7281
79.9836 49.1251 14.0608
80.3288 49.395 14.1801
80.6427 49.6398 14.2178
80.9063 49.8469 14.1362
81.1386 50.0227 13.9039
81.3394 50.1859 13.6152
81.0507 49.9599 12.9121
81.76 50.5123 13.8662
81.3206 50.1733 12.7929
82.2057 50.8576 14.2178
82.5258 51.1086 14.2178
82.7016 51.2405 13.9039
82.9464 51.4351 13.7595
83.2477 51.6736 13.7846
83.4674 51.8368 13.5649
83.2289 51.6548 12.9812
83.7185 52.0377 13.4896
84.4153 52.5838 13.5838
85.2627 53.2366 14.1424
85.633 53.5316 14.2994
87.0077 54.5987 16.1951
86.3298 54.0715 14.5191
87.874 55.2704 17.6074
87.3404 54.8561 16.283
87.6668 55.1135 16.3708
34.9073 13.5336 14.1738
35.2902 13.8286 14.3433
35.7547 14.1927 14.6195
36.1125 14.4689 14.6572
36.4326 14.7199 14.6446
36.7591 14.9773 14.6258
37.0478 15.2033 14.563
37.3742 15.4544 14.563
37.663 15.6803 14.494
37.9329 15.8938 14.4124
38.2342 16.126 14.3935
38.5167 16.3457 14.3308
38.8556 16.6094 14.3496
39.182 16.8605 14.3182
39.5336 17.1366 14.3559
39.8662 17.4003 14.3873
40.1927 17.6451 14.3747
40.5379 17.915 14.4124
40.8769 18.1849 14.4814
41.2598 18.4862 14.6634
41.6615 18.7938 14.8329
42.013 19.07 14.9585
42.3646 19.3462 15.015
42.7412 19.635 15.0903
43.0927 19.9112 15.1342
43.4631 20.1999 15.2598
43.8271 20.4824 15.3163
44.1598 20.746 15.3602
44.5176 21.0222 15.4795
44.8817 21.3047 15.5674
45.1956 21.5495 15.5862
45.5157 21.8006 15.6427
45.8672 22.0705 15.6615
46.2125 22.3404 15.6866
46.5263 22.5852 15.6678
46.8653 22.8489 15.7055
47.154 23.0748 15.6239
47.4742 23.3259 15.6301
47.8131 23.5896 15.6992
48.1772 23.872 15.8059
48.5224 24.142 15.9
48.8175 24.3679 15.8875
49.169 24.6441 15.9314
49.5205 24.9203 15.9691
49.8595 25.184 15.9879
50.1671 25.4225 15.9816
50.4746 25.661 15.9314
50.8136 25.9309 15.9816
51.1212 26.1632 15.9565
51.4225 26.3955 15.9377
51.7364 26.6465 15.9565
52.0314 26.8725 15.944
52.3578 27.1299 15.944
52.6842 27.381 15.9189
53.0043 27.6321 15.9126
53.3119 27.8643 15.8938
53.6634 28.1405 15.944
53.9899 28.3979 15.9691
54.31 28.649 16.0005
54.6113 28.8812 15.9691
54.8938 29.1009 15.944
55.1762 29.3206 15.9
55.5278 29.5968 15.9252
55.8667 29.8605 15.944
56.2434 30.1555 16.0884
56.576 30.4128 16.1072
56.9213 30.6828 16.17
57.2916 30.9715 16.2955
57.6494 31.2477 16.4022
57.9507 31.4862 16.3959
58.2646 31.7248 16.4273
58.5659 31.9633 16.4148
58.8735 32.2018 16.3771
59.2062 32.4592 16.3771
59.5075 32.6977 16.3081
59.7837 32.9112 16.2265
60.0661 33.1371 16.1574
60.3926 33.3882 16.1574
60.6625 33.5954 16.0758
60.9261 33.8025 15.9942
61.2149 34.0285 15.944
61.5099 34.2607 15.9503
61.8175 34.4993 15.9126
62.1815 34.7817 15.9754
62.508 35.0328 15.9691
62.8281 35.2902 16.0068
63.1357 35.5224 15.944
63.4181 35.7484 15.8938
63.7006 35.9681 15.8498
63.9894 36.1941 15.7871
64.253 36.4013 15.6992
64.5794 36.6523 15.7933
64.8933 36.8971 15.7368
65.2009 37.1357 15.6992
65.5022 37.3679 15.6427
65.7909 37.6002 15.5736
66.0734 37.8136 15.4858
66.3245 38.0145 15.3602
66.5944 38.2216 15.2598
66.8455 38.4162 15.128
67.1028 38.6171 15.0338
67.423 38.8682 15.084
67.718 39.1004 15.015
67.9879 39.3076 14.8769
68.2327 39.5022 14.6948
68.4587 39.6779 14.5065
68.7286 39.8914 14.3873
69.0362 40.1299 14.3747
69.3438 40.3684 14.3684
69.6137 40.5756 14.2931
69.9276 40.8204 14.3119
70.1912 41.0275 14.2429
70.4109 41.2033 14.0106
70.6745 41.4104 13.8411
70.9131 41.5925 13.6465
71.1202 41.7557 13.4017
71.3713 41.9503 13.2323
71.6224 42.1449 13.0942
72.4196 42.7663 14.2743
71.9802 42.4273 13.226
72.2125 42.6031 13.0439
72.3945 42.7475 12.7803
72.6456 42.9421 12.6673
72.9469 43.1806 12.6108
73.2356 43.4066 12.5292
73.5558 43.6514 12.5041
73.832 43.8711 12.4225
74.0579 44.0468 12.2154
74.309 44.2414 12.0584
74.5476 44.4235 11.8952
74.7798 44.6118 11.7446
75.0748 44.8378 11.7195
75.3699 45.07 11.7132
75.69 45.3148 11.7006
75.9662 45.5345 11.6065
76.6378 46.0492 12.4476
76.3052 45.7919 11.6316
76.914 46.2689 12.3597
77.2342 46.5138 12.366
77.9058 47.041 12.5104
78.4206 47.4428 13.0565
78.816 47.7441 13.2511
78.6089 47.5872 12.027
79.4061 48.2086 13.2323
80.0401 48.6982 13.9604
80.4795 49.0372 14.2554
80.8122 49.3008 14.3182
81.1009 49.5268 14.2429
81.3269 49.7026 14.0546
81.4964 49.8344 13.7219
81.6972 49.9913 13.4708
82.0739 50.2863 13.6654
81.6972 49.9913 12.7426
82.4631 50.5876 13.9165
82.6953 50.7697 13.6968
83.0531 51.0459 13.7909
83.3419 51.2718 13.703
83.5427 51.4288 13.4331
83.3167 51.253 12.8807
83.6369 51.5041 12.8996
85.0367 52.59 14.1111
85.3757 52.8537 14.2178
85.7146 53.1236 14.3433
86.1854 53.4877 14.7074
86.5118 53.745 14.7262
87.3341 54.379 15.9628
86.8445 53.9961 14.7388
87.7421 54.6992 16.2265
87.196 54.2723 14.8706
88.1188 54.9942 16.3959
89.098 55.7537 18.0594
88.7716 55.5027 17.2496
88.4075 55.2139 16.3394
35.1772 13.3452 13.9353
35.535 13.6214 14.0295
35.943 13.9416 14.2052
36.2569 14.1864 14.224
36.5645 14.4249 14.2554
36.9097 14.6948 14.2366
37.2236 14.9396 14.1989
37.5437 15.1845 14.1927
37.8576 15.4293 14.1236
38.1589 15.6678 14.0734
38.4664 15.9 14.0734
38.7803 16.1511 14.0169
39.0942 16.3897 14.042
39.3892 16.6219 14.0232
39.7093 16.8667 14.0169
40.0546 17.1366 14.0483
40.381 17.394 14.0608
40.7388 17.6702 14.0671
41.1091 17.959 14.2052
41.5109 18.2728 14.3998
41.9189 18.5929 14.563
42.2955 18.888 14.7074
42.6282 19.1453 14.8078
42.9797 19.4215 14.8392
43.3124 19.6852 14.9208
43.6828 19.9676 15.0401
44.0657 20.269 15.0777
44.4109 20.5389 15.1405
44.7373 20.7962 15.1907
45.1014 21.0787 15.2221
45.4341 21.3361 15.2849
45.7417 21.5746 15.2849
46.0995 21.8508 15.3351
46.4008 22.0893 15.3665
46.6832 22.309 15.3351
47.0285 22.5727 15.3037
47.3549 22.8238 15.3037
47.6876 23.0811 15.3288
48.083 23.395 15.4481
48.466 23.6963 15.6239
48.7798 23.9411 15.6552
49.1439 24.2236 15.6992
49.4326 24.4495 15.6992
49.7465 24.6881 15.7243
50.0729 24.9392 15.7117
50.393 25.1902 15.718
50.7257 25.4476 15.7431
51.0647 25.7175 15.7055
51.3786 25.9623 15.7306
51.705 26.2134 15.7619
52.0314 26.4708 15.7368
52.3201 26.6968 15.7306
52.6089 26.9227 15.7117
52.9416 27.1801 15.6992
53.2178 27.3935 15.6741
53.5505 27.6509 15.6992
53.902 27.9271 15.6866
54.2096 28.1656 15.6866
54.5485 28.4355 15.7494
54.8875 28.6992 15.7306
55.1762 28.9252 15.7306
55.4713 29.1511 15.6929
55.7851 29.3959 15.6615
56.1178 29.6533 15.7368
56.4379 29.8981 15.7933
56.8271 30.212 15.9
57.1787 30.4819 15.9691
57.5741 30.7895 16.1574
57.9194 31.0594 16.1825
58.2207 31.2916 16.17
58.5471 31.549 16.2076
58.8735 31.8001 16.2014
59.156 32.0198 16.1951
59.4761 32.2709 16.2076
59.7648 32.4969 16.1323
60.0473 32.7166 16.0821
60.3047 32.9174 15.9314
60.6562 33.1873 15.9377
60.9198 33.4008 15.8624
61.2086 33.6205 15.7871
61.535 33.8778 15.7808
61.8175 34.0975 15.7557
62.1313 34.3423 15.7933
62.4829 34.6123 15.8498
62.7842 34.8508 15.8749
63.0729 35.0768 15.8122
63.393 35.3279 15.7431
63.6881 35.5538 15.718
63.9768 35.7798 15.6678
64.297 36.0309 15.6176
64.592 36.2569 15.6239
64.9121 36.508 15.649
65.2197 36.7465 15.6113
65.4771 36.9474 15.5485
65.7533 37.1608 15.5046
66.0671 37.4056 15.4104
66.3245 37.6065 15.3037
66.5881 37.8136 15.1782
66.8706 38.0333 15.0526
67.1342 38.2405 14.971
67.3916 38.4413 14.8518
67.7431 38.7175 14.8957
68.0005 38.9121 14.8267
68.2453 39.1067 14.6823
68.4713 39.2825 14.4751
68.7224 39.4771 14.3559
69.0111 39.703 14.2617
69.3438 39.9604 14.2303
69.6137 40.1738 14.1927
69.9025 40.3998 14.1236
70.1912 40.6258 14.0043
70.3795 40.7702 13.7784
70.6745 41.0024 13.7658
70.9319 41.2033 13.6026
71.1265 41.3539 13.3955
71.3274 41.5109 13.1255
71.6098 41.7368 12.9749
71.9363 41.9879 13.0377
72.2627 42.239 13.0628
72.5075 42.4273 12.8242
72.6895 42.578 12.5732
72.9532 42.7788 12.4853
73.2545 43.0174 12.4288
73.5746 43.2622 12.5041
73.8194 43.4568 12.3974
74.1019 43.6765 12.2467
74.3404 43.8648 12.0898
74.5978 44.0657 11.9454
74.8489 44.2603 11.7634
75.1125 44.4674 11.6692
75.4452 44.7248 11.7195
75.7528 44.9633 11.6692
75.985 45.1453 11.55
76.2424 45.3462 11.4495
76.9517 45.8923 12.4162
76.506 45.5534 11.3303
77.1902 46.0744 12.2405
76.8324 45.7982 11.3868
77.1714 46.0618 11.4307
78.0942 46.7774 12.8368
77.8242 46.5703 12.184
78.5022 47.0975 13.1255
78.0816 46.7711 12.1086
78.8349 47.3549 13.1632
79.1362 47.5934 13.1004
79.3747 47.7817 13
80.1154 48.353 14.0734
79.7702 48.083 13.2323
80.4606 48.6229 14.1236
80.7619 48.8551 14.1864
81.1386 49.1502 14.3308
81.4022 49.3573 14.1487
81.5968 49.508 13.8788
81.7726 49.6461 13.5712
81.9546 49.7904 13.1883
82.4505 50.1733 13.6905
81.9483 49.7842 12.4602
82.7518 50.4056 13.6905
83.0908 50.6692 13.7344
82.6137 50.3052 12.5732
83.2854 50.8262 13.5273
83.4674 50.9643 13.2699
83.8503 51.2656 13.3892
83.9507 51.3409 12.8745
84.3148 51.6296 12.9812
85.112 52.2448 14.1613
85.5075 52.5524 14.381
85.8151 52.7972 14.4061
86.085 53.0043 14.2743
86.3423 53.1989 14.2052
86.8947 53.6321 14.8518
87.1835 53.858 14.7827
87.9242 54.4355 15.8938
87.5789 54.1656 15.0275
88.4389 54.8373 16.352
89.1922 55.4148 17.4003
34.9889 12.7489 13.2887
35.3404 13.0188 13.3766
35.7924 13.3766 13.6528
36.1376 13.6465 13.6654
36.4703 13.9039 13.7219
36.8155 14.1738 13.7721
37.1545 14.4312 13.7846
37.437 14.6509 13.7595
37.732 14.8831 13.7093
38.1024 15.1719 13.7595
38.4162 15.4167 13.7595
38.7489 15.6741 13.7533
39.0628 15.9189 13.6968
39.3829 16.17 13.7156
39.7156 16.4273 13.7407
40.0232 16.6659 13.6905
40.3496 16.9232 13.7595
40.6823 17.1806 13.7972
41.0903 17.5007 14.0106
41.4795 17.802 14.1676
41.9189 18.141 14.3747
42.2955 18.4423 14.4689
42.6345 18.7059 14.5379
42.9985 18.9821 14.5881
43.3563 19.2646 14.6572
43.6702 19.5094 14.7011
43.9966 19.7668 14.745
44.3607 20.043 14.8204
44.6683 20.2878 14.8957
45.0198 20.5577 14.902
45.3776 20.8402 14.9271
45.6977 21.085 14.9459
46.0367 21.3549 14.971
46.3819 21.6248 14.9899
46.7021 21.8696 15.0338
47.0034 22.1019 14.9899
47.3172 22.353 14.9773
47.5997 22.5727 14.9585
47.9889 22.874 15.1405
48.3718 23.169 15.2096
48.7421 23.4577 15.3414
49.0999 23.7402 15.3979
49.4515 24.0101 15.4481
49.7716 24.2612 15.4795
50.098 24.5123 15.4732
50.4182 24.7697 15.4795
50.7195 25.0019 15.5046
51.0333 25.2467 15.5046
51.3283 25.4727 15.4606
51.6673 25.7426 15.5297
52 26 15.492
52.3452 26.2636 15.5046
52.6403 26.4959 15.4983
52.9667 26.747 15.4858
53.2743 26.9918 15.4355
53.5693 27.2178 15.4544
53.8706 27.4563 15.4104
54.197 27.7074 15.4481
54.4732 27.9271 15.4355
54.7996 28.1782 15.4042
55.17 28.4669 15.4481
55.465 28.6992 15.4355
55.7726 28.9377 15.3916
56.1115 29.2013 15.3979
56.4505 29.465 15.5046
56.7769 29.7224 15.5234
57.1661 30.0237 15.6803
57.5113 30.2936 15.8247
57.8691 30.5698 15.9189
58.2081 30.8334 15.944
58.5282 31.0845 15.9691
58.8735 31.3544 15.9754
59.2062 31.6118 15.9816
59.52 31.8566 16.0193
59.8339 32.1014 15.9942
60.1352 32.3399 15.9691
60.3988 32.5408 15.9
60.6688 32.7542 15.7996
60.9387 32.9614 15.7055
61.2211 33.1811 15.6552
61.5476 33.4384 15.6113
61.8363 33.6644 15.536
62.1188 33.8841 15.4983
62.4954 34.1791 15.5925
62.8093 34.4239 15.5862
63.1043 34.6499 15.6113
63.3868 34.8696 15.5171
63.6943 35.1144 15.492
63.9705 35.3279 15.492
64.2467 35.5413 15.3539
64.6359 35.8426 15.4795
64.9309 36.0748 15.4606
65.2636 36.3322 15.4669
65.5838 36.5833 15.4669
65.86 36.7967 15.4167
66.1487 37.0227 15.3351
66.4061 37.2236 15.2158
66.6446 37.4056 15.1091
66.9145 37.619 15.0212
67.2158 37.8513 14.9334
67.4795 38.0584 14.8329
67.8059 38.3158 14.8141
68.0758 38.5229 14.7011
68.3143 38.7112 14.5505
68.534 38.887 14.3056
68.7851 39.0816 14.1676
69.0299 39.2699 14.0734
69.3312 39.5022 14.0169
69.6263 39.7344 14.0043
69.8773 39.929 13.8976
70.1535 40.1487 13.7407
70.4235 40.3559 13.6089
70.7562 40.6132 13.7093
71.0072 40.8141 13.4959
71.1893 40.9585 13.182
71.3901 41.1154 12.9812
71.704 41.3539 12.9623
72.0179 41.605 12.9812
72.2878 41.8122 12.9749
72.52 41.9942 12.7364
72.7586 42.1762 12.4978
72.9908 42.3583 12.3409
73.3047 42.6031 12.297
73.6562 42.873 12.3472
73.901 43.0676 12.253
74.1584 43.2747 12.1024
74.4408 43.4882 12.0333
74.6919 43.6828 11.958
74.9305 43.8711 11.7948
75.1878 44.0719 11.6253
75.5393 44.3481 11.732
75.803 44.5553 11.5688
76.0541 44.7499 11.4244
76.3679 44.9884 11.4495
76.6378 45.2018 11.2926
77.3283 45.7354 12.2467
76.9392 45.4278 11.2989
77.2279 45.6601 11.3114
78.226 46.4322 12.9561
78.4017 46.564 12.6485
78.8788 46.9406 13.0816
79.1424 47.1478 12.9058
79.4186 47.3612 12.7991
79.8455 47.6876 13.1067
80.5674 48.2525 14.0797
80.8435 48.466 13.9918
81.0884 48.6605 13.8851
81.4085 48.9116 13.9102
81.6533 49.0999 13.7658
81.8542 49.2569 13.5901
82.0864 49.4389 13.3264
82.1806 49.5142 12.7615
82.2936 49.6021 12.297
83.0217 50.1671 13.2762
82.5823 49.8281 12.2091
83.4046 50.4621 13.452
83.662 50.663 13.3766
83.957 50.8952 13.3076
84.2583 51.1337 13.3327
84.0072 50.9329 12.705
84.5785 51.3786 13.4268
84.7417 51.5041 13.0565
85.4824 52.0816 14.0859
85.8402 52.3578 14.1989
86.1226 52.5838 14.0797
86.7001 53.0294 14.7576
87.0077 53.268 14.789
87.2776 53.4814 14.6572
87.6103 53.7388 14.7262
87.987 54.0338 14.9773
88.7277 54.605 16.0319
88.3071 54.2849 14.9961
89.7132 55.3708 17.7455
89.1545 54.944 16.3708
90.2028 55.7475 18.21
35.3216 12.5606 13.0879
35.6417 12.8117 13.1067
36.0372 13.1193 13.2636
36.3699 13.3829 13.3515
36.7088 13.6465 13.3452
37.0415 13.9039 13.3327
37.3742 14.1613 13.3452
37.6943 14.4061 13.3264
38.0333 14.6697 13.3264
38.3597 14.9271 13.3515
38.6799 15.1782 13.3766
39.0377 15.4544 13.4645
39.3703 15.718 13.5084
39.6842 15.9628 13.5336
40.0295 16.2327 13.5336
40.3684 16.4964 13.5587
40.7388 16.7851 13.6528
41.1217 17.0802 13.7846
41.4858 17.3626 13.86
41.8875 17.6765 14.0357
42.2892 17.9841 14.2178
42.6031 18.2352 14.268
42.9546 18.5051 14.3245
43.2747 18.7562 14.3559
43.6263 19.0261 14.3998
43.9841 19.3085 14.45
44.3419 19.5847 14.5065
44.6369 19.817 14.4751
45.0072 20.1057 14.563
45.3525 20.3757 14.6132
45.6789 20.6267 14.6572
46.0053 20.8778 14.6948
46.3192 21.1289 14.6948
46.5891 21.3361 14.6258
46.9218 21.5934 14.6195
47.2607 21.8633 14.6132
47.5872 22.1144 14.6195
48.0077 22.4408 14.8455
48.3718 22.7233 14.9271
48.7421 23.0183 15.0777
49.0937 23.2883 15.1405
49.4264 23.5456 15.2033
49.7528 23.7967 15.2409
50.0604 24.0415 15.2472
50.393 24.2989 15.2472
50.7195 24.5563 15.2535
51.0459 24.8073 15.2535
51.3786 25.071 15.2598
51.7112 25.3283 15.3037
52.0314 25.5732 15.2974
52.3515 25.8242 15.3163
52.6465 26.0565 15.2974
52.9416 26.2825 15.2472
53.2366 26.5147 15.2347
53.5567 26.7658 15.2158
53.858 26.9981 15.1656
54.1782 27.2492 15.128
54.5234 27.5191 15.2033
54.7808 27.7199 15.0715
55.126 27.9899 15.1154
55.4775 28.2598 15.2096
55.7726 28.492 15.1782
56.0801 28.7306 15.1719
56.3689 28.9565 15.1719
56.733 29.239 15.2409
57.1096 29.5278 15.3414
57.5302 29.8605 15.5674
57.8817 30.1304 15.6552
58.2458 30.4128 15.7306
58.5785 30.6765 15.7808
58.8735 30.9025 15.7619
59.1999 31.1598 15.7933
59.5075 31.3984 15.7996
59.8088 31.6369 15.8122
60.1289 31.8817 15.7871
60.4365 32.1202 15.7368
60.7504 32.365 15.718
61.0391 32.591 15.6301
61.309 32.8044 15.5297
61.5789 33.0116 15.4355
61.8677 33.2376 15.3477
62.1188 33.4322 15.2535
62.3824 33.6393 15.1656
62.6837 33.8716 15.1531
63.0917 34.1917 15.3602
63.4181 34.4491 15.3539
63.7069 34.675 15.2723
64.0208 34.9198 15.2661
64.3095 35.1458 15.2033
64.6485 35.4095 15.2598
64.9749 35.6605 15.31
65.2636 35.8865 15.2723
65.5838 36.1313 15.2974
65.8725 36.3573 15.2849
66.1989 36.6147 15.2912
66.5065 36.8532 15.2158
66.7827 37.0666 15.128
67.0275 37.2612 14.9647
67.3163 37.4809 14.8831
67.5674 37.6818 14.7513
67.8435 37.8952 14.676
68.0884 38.0898 14.5379
68.3394 38.2844 14.4186
68.5717 38.4664 14.2554
68.8291 38.661 14.0922
69.1053 38.8807 13.973
69.3438 39.069 13.7784
69.6451 39.3013 13.747
69.9401 39.5336 13.6968
70.1724 39.7156 13.5273
70.4297 39.9102 13.3766
70.7373 40.155 13.408
71.0198 40.3747 13.3704
71.252 40.5567 13.2071
71.4592 40.7199 12.9372
71.7166 40.9145 12.7615
72.0618 41.1844 12.7991
72.3505 41.4104 12.7615
72.6079 41.6113 12.6171
72.8151 41.7745 12.3535
73.1101 42.0005 12.3409
73.3172 42.1637 12.1024
73.5934 42.3771 12.0459
73.9136 42.6282 12.1212
74.1584 42.8165 11.9329
74.4722 43.0676 11.8827
74.7735 43.2999 11.8324
75.056 43.5196 11.7634
75.3134 43.7204 11.6253
75.5205 43.8836 11.4119
75.7779 44.0845 11.2738
76.0541 44.2979 11.2173
76.3805 44.549 11.2675
76.6692 44.7813 11.2487
76.958 45.001 11.1608
77.3032 45.2646 11.2173
78.3013 46.043 12.8619
77.6547 45.5408 11.2989
78.6026 46.2752 12.8368
79.3056 46.8213 13.0439
79.676 47.1101 13.1883
79.971 47.3361 13.182
79.7137 47.1415 12.5543
79.3056 46.8213 11.5563
80.2912 47.5872 13.2323
80.8373 48.014 13.8349
81.0695 48.196 13.6277
81.3708 48.4283 13.5649
81.6972 48.6794 13.5775
81.9546 48.8802 13.4645
82.1931 49.0686 13.2762
82.394 49.2255 13
82.5447 49.3448 12.6485
82.7769 49.5268 12.479
83.2477 49.8909 12.887
83.5992 50.1671 13.0565
84.0261 50.4998 13.3076
84.3525 50.7508 13.295
84.7354 51.0459 13.4708
85.0053 51.2593 13.3829
85.8339 51.9058 13.8976
85.5577 51.6924 13.2134
86.154 52.1569 13.9416
87.083 52.8725 14.7702
87.2337 52.9981 14.4312
87.987 53.5818 14.7011
88.3887 53.8957 14.9083
90.1526 55.2641 17.7455
89.6692 54.8875 16.5466
90.7552 55.7349 18.48
35.2902 12.0961 12.6799
35.6857 12.4037 12.8242
36.0623 12.6987 12.9247
36.4264 12.9812 13.0314
36.7402 13.226 13.0502
37.0352 13.452 13
37.3491 13.6968 13.0063
37.663 13.9416 12.9623
38.0333 14.2303 13.0126
38.366 14.4877 13.0251
38.7112 14.7576 13.0942
39.069 15.0401 13.1381
39.408 15.2974 13.1632
39.7784 15.5862 13.3013
40.1048 15.8436 13.339
40.4563 16.1135 13.4143
40.7953 16.3771 13.5147
41.1719 16.6721 13.5838
41.5548 16.9734 13.6842
41.9503 17.281 13.8411
42.3143 17.5635 13.9165
42.6659 17.8334 13.9792
43.0237 18.1159 14.0797
43.3563 18.3732 14.0985
43.6765 18.6243 14.1048
43.9966 18.8691 14.1487
44.3168 19.1202 14.1801
44.662 19.3901 14.1989
44.9947 19.6475 14.2052
45.3399 19.9237 14.2303
45.6726 20.1811 14.268
46.0179 20.451 14.3182
46.3443 20.7021 14.3119
46.6456 20.9406 14.2994
46.9469 21.1729 14.2805
47.2419 21.3988 14.2366
47.5432 21.6374 14.2303
47.9763 21.9763 14.4689
48.422 22.3153 14.7074
48.7798 22.5978 14.7764
49.1627 22.8991 14.9396
49.4954 23.1564 14.9459
49.8469 23.4264 15.0087
50.1671 23.6774 15.0401
50.4684 23.9097 15.0401
50.7885 24.1608 15.0338
51.0521 24.3679 14.971
51.3974 24.6379 15.0024
51.7928 24.9454 15.128
52.113 25.1965 15.128
52.4394 25.4476 15.1342
52.7281 25.6736 15.0464
53.0106 25.8933 14.9899
53.3433 26.1506 15.0275
53.6446 26.3892 15.0212
53.9522 26.6277 15.0275
54.2535 26.86 15.015
54.5862 27.1236 15.015
54.8938 27.3621 14.971
55.2327 27.6195 14.9773
55.534 27.858 14.9459
55.8291 28.0903 14.902
56.1492 28.3414 14.8957
56.4819 28.5987 14.9522
56.7832 28.831 14.9522
57.1284 29.1009 15.0275
57.4862 29.3771 15.1593
57.9507 29.7412 15.4795
58.3085 30.0174 15.5171
58.6412 30.281 15.5736
58.9614 30.5321 15.5799
59.2878 30.7832 15.5674
59.6142 31.0343 15.5987
59.9218 31.2728 15.605
60.2168 31.5051 15.5799
60.5307 31.7499 15.5862
60.8131 31.9696 15.5548
61.1082 32.2018 15.4606
61.3969 32.4215 15.3665
61.6417 32.6161 15.2221
61.943 32.8484 15.1468
62.2443 33.0869 15.1405
62.5519 33.3254 15.1028
62.8407 33.5514 15.0589
63.1357 33.7837 15.0338
63.4809 34.0473 15.1468
63.7885 34.2858 15.1405
64.071 34.5118 15.0338
64.366 34.7378 14.971
64.7301 35.0266 15.0652
65.1067 35.3153 15.2033
65.4206 35.5601 15.2033
65.7344 35.8049 15.2033
66.0357 36.0372 15.1782
66.3308 36.2694 15.1845
66.6195 36.4891 15.1154
66.8831 36.7026 15.0338
67.1656 36.9223 14.9396
67.4355 37.1294 14.8015
67.7117 37.3428 14.6823
67.9628 37.5374 14.5505
68.2202 37.7446 14.3873
68.4587 37.9266 14.224
68.6972 38.1149 14.0797
68.9483 38.3095 13.9416
69.1994 38.5041 13.8223
69.4379 38.6924 13.6842
69.7267 38.9184 13.5901
70.0217 39.1506 13.5022
70.2603 39.3327 13.3201
70.5239 39.5398 13.2009
70.844 39.7846 13.1946
71.1328 40.0106 13.1569
71.3588 40.1864 12.9372
71.5659 40.3496 12.7175
71.8547 40.5818 12.7238
72.1936 40.8392 12.7866
72.4824 41.0652 12.7175
72.6832 41.2221 12.4099
72.9218 41.4104 12.1965
73.1415 41.5799 11.9768
73.3988 41.7808 11.8576
73.7315 42.0444 11.8827
74.0893 42.3143 12.0145
74.2839 42.4713 11.7634
74.5789 42.7035 11.7508
74.8614 42.9232 11.7195
75.169 43.1555 11.6818
75.4452 43.3752 11.55
75.6837 43.5635 11.3679
75.9223 43.7518 11.211
76.1859 43.9527 11.0478
76.5876 44.2665 11.2675
76.8513 44.4737 11.1859
77.1149 44.6745 11.0604
77.4225 44.9068 11.098
77.9812 45.3462 11.7446
78.6968 45.8986 12.6799
79.0671 46.1873 12.7991
79.5693 46.5828 13.2699
79.858 46.8025 13.1758
79.155 46.2564 11.4621
80.128 47.0159 13.0753
79.4877 46.52 11.5249
80.5234 47.3172 13.295
80.8624 47.5872 13.3641
81.1009 47.7692 13.2197
81.4587 48.0517 13.3892
81.7726 48.2902 13.408
82.0174 48.4848 13.2385
82.2747 48.6857 13.0628
82.5133 48.8677 12.8493
82.7141 49.0309 12.6045
83.0782 49.3134 12.7552
83.5239 49.6586 13.069
84.6412 50.5249 15.0401
83.9005 49.9536 13.2323
84.252 50.2298 13.3892
84.591 50.4872 13.4645
84.8735 50.7069 13.4394
85.1811 50.9454 13.4331
86.041 51.6171 13.9541
85.6895 51.3472 13.0942
86.5307 52 14.4186
86.3047 51.8242 13.86
86.719 52.1444 14.1048
87.2462 52.5587 14.6634
87.9367 53.0922 14.1362
88.4703 53.5065 14.7513
88.1188 53.2366 13.8788
88.8846 53.8329 14.9773
89.2675 54.128 15.1405
90.8682 55.3708 18.323
35.6919 12.0333 12.5418
36.0246 12.297 12.6359
36.4075 12.592 12.6673
36.7465 12.8556 12.6987
37.0604 13.1004 12.6987
37.3993 13.3641 12.6673
37.7195 13.6152 12.6924
38.0333 13.86 12.6987
38.3974 14.1424 12.7426
38.7364 14.4061 12.8242
39.0502 14.6509 12.8745
39.3829 14.9083 12.8619
39.747 15.197 12.9435
40.0985 15.4669 12.9937
40.494 15.7745 13.0942
40.8455 16.0507 13.182
41.2535 16.3646 13.3892
41.6176 16.6533 13.452
41.9816 16.9358 13.5712
42.3206 17.1931 13.6654
42.6721 17.4693 13.703
43.0048 17.7267 13.7658
43.3187 17.9715 13.7658
43.7079 18.2791 13.8349
44.0468 18.5427 13.8725
44.3607 18.7875 13.8851
44.7059 19.0512 13.8788
45.0198 19.296 13.8976
45.3399 19.5471 13.9227
45.6852 19.817 13.9541
45.9802 20.0492 13.9479
46.2815 20.2752 13.9604
46.633 20.5514 13.9604
46.972 20.8213 14.0106
47.2796 21.0536 13.9667
47.6123 21.3172 13.9416
47.9638 21.5872 14.042
48.4157 21.9387 14.3559
48.8112 22.2463 14.4751
49.1564 22.5162 14.5944
49.5017 22.7861 14.7074
49.8344 23.0435 14.7137
50.1733 23.3071 14.7764
50.506 23.5707 14.7827
50.8513 23.8344 14.7513
51.1337 24.0604 14.7199
51.4476 24.3052 14.7262
51.8368 24.6065 14.8267
52.1381 24.8387 14.8392
52.4394 25.0773 14.8455
52.7846 25.3472 14.8706
53.0357 25.5355 14.7702
53.3496 25.7803 14.7764
53.7137 26.0628 14.7953
54.0275 26.3139 14.789
54.3602 26.5712 14.8329
54.7055 26.8411 14.8392
54.9942 27.0671 14.8267
55.2955 27.2994 14.8015
55.6282 27.5567 14.8078
55.9295 27.7953 14.8455
56.2371 28.0275 14.858
56.5823 28.3037 14.858
56.9087 28.5548 14.8769
57.2289 28.8059 14.8831
57.6432 29.126 15.0526
58.001 29.4085 15.1782
58.3525 29.6784 15.2661
58.6977 29.9483 15.2974
58.999 30.1806 15.3288
59.3129 30.4254 15.3539
59.633 30.6765 15.3539
59.9469 30.9213 15.3414
60.2545 31.1598 15.3225
60.5872 31.4172 15.2974
60.8947 31.662 15.31
61.1835 31.8817 15.2347
61.4722 32.1077 15.1342
61.7296 32.3085 15.0589
61.9995 32.522 14.9836
62.3259 32.7731 14.9647
62.6084 32.9928 14.971
62.9223 33.2376 14.9522
63.2298 33.4761 14.8518
63.5374 33.7146 14.8643
63.8764 33.9783 14.9208
64.1965 34.2294 14.8831
64.435 34.4177 14.7576
64.8054 34.7001 14.8706
65.1004 34.9324 14.8204
65.4645 35.2211 14.9961
65.747 35.4346 14.9836
66.0797 35.6982 14.9522
66.3998 35.943 14.9647
66.7074 36.1878 14.9459
67.0212 36.4326 14.8894
67.2849 36.6398 14.8078
67.5611 36.8532 14.7262
67.8373 37.0666 14.6007
68.0695 37.2487 14.4751
68.2892 37.4244 14.2931
68.5466 37.619 14.155
68.7851 37.8011 13.9792
69.0488 38.0082 13.8286
69.3438 38.2405 13.6968
69.5823 38.4288 13.5712
69.8334 38.6234 13.4331
70.1222 38.8431 13.3139
70.3607 39.0377 13.2009
70.6243 39.2385 13.1255
70.9256 39.4771 13.0565
71.2018 39.6905 13.0502
71.4215 39.86 12.8242
71.6726 40.0608 12.5983
71.9865 40.2994 12.6234
72.4322 40.6509 12.9435
72.7146 40.8706 12.818
72.8213 40.9522 12.3597
72.9908 41.084 12.0396
73.2482 41.2912 11.8764
73.4553 41.4481 11.6881
73.7692 41.6929 11.7383
74.1646 42.0005 11.8701
74.4346 42.2076 11.7697
74.7108 42.421 11.663
75.0121 42.6596 11.5814
75.3134 42.8981 11.6127
75.5833 43.1053 11.5186
75.8406 43.3061 11.3491
76.0604 43.4756 11.1985
76.324 43.6828 11.1043
76.7069 43.9778 11.2675
77.0145 44.2226 11.2738
77.253 44.4046 11.0729
77.5731 44.6494 11.029
78.1758 45.114 11.7571
78.8725 45.6601 12.7112
79.2429 45.9488 12.7991
80.2347 46.7146 13
79.7325 46.3317 11.7885
80.6113 47.0097 13.2448
80.9063 47.2419 13.2009
81.1951 47.4679 13.069
81.5905 47.7755 13.295
81.9107 48.0203 13.3327
82.1743 48.2274 13.1444
82.394 48.4032 12.9812
82.62 48.5789 12.8054
82.8146 48.7296 12.4915
83.1849 49.0183 12.7175
83.5051 49.2694 12.8054
83.9194 49.5896 12.9686
84.3776 49.9474 13.3452
84.7605 50.2424 13.5022
85.0681 50.4809 13.4457
85.3443 50.7006 13.4017
85.6142 50.9078 13.3201
85.7962 51.0521 12.9749
86.0913 51.2781 13
86.3486 51.479 12.9247
87.2086 52.1444 14.2617
87.6857 52.521 14.7011
87.9807 52.747 14.6383
88.1564 52.8851 14.2429
88.6586 53.2743 14.7764
88.1941 52.9165 13.6277
89.0478 53.5818 14.9647
88.5268 53.1738 13.6717
89.3805 53.8392 14.9899
90.1149 54.4104 16.1135
91.4268 55.421 18.6181
35.761 11.6065 12.2844
36.0999 11.8701 12.3723
36.4201 12.1212 12.3911
36.7528 12.3786 12.4099
37.0541 12.6108 12.4225
37.3868 12.8745 12.4162
37.7446 13.1507 12.4099
38.0773 13.4143 12.4539
38.3911 13.6591 12.4288
38.7615 13.9416 12.4915
39.069 14.1801 12.4978
39.4394 14.4689 12.5983
39.7533 14.7137 12.5543
40.0608 14.9585 12.6108
40.3872 15.2096 12.6485
40.7953 15.5234 12.7615
41.2033 15.8436 12.9749
41.5987 16.1511 13.1004
42.0068 16.4713 13.2699
42.3771 16.7537 13.3955
42.7098 17.0174 13.408
43.0613 17.2936 13.452
43.3752 17.5321 13.4959
43.689 17.7769 13.5084
44.0154 18.0343 13.5147
44.3356 18.2791 13.5398
44.6432 18.5239 13.4582
44.9821 18.7875 13.452
45.2772 19.0198 13.4394
45.6098 19.2772 13.4268
45.9363 19.5282 13.4143
46.2501 19.7731 13.4582
46.5891 20.0367 13.4959
46.9155 20.2878 13.521
47.1854 20.5012 13.4959
47.5369 20.7711 13.5084
47.8885 21.0473 13.5022
48.3467 21.4051 13.86
48.7986 21.7566 14.1299
49.1564 22.0328 14.1801
49.5205 22.3216 14.3433
49.8595 22.5852 14.3747
50.1985 22.8489 14.4312
50.506 23.0874 14.4626
50.8073 23.3197 14.4312
51.1337 23.577 14.3998
51.4602 23.8281 14.4249
51.7991 24.0917 14.45
52.1758 24.3868 14.5316
52.5147 24.6504 14.6321
52.86 24.914 14.6572
53.155 25.1463 14.6132
53.4124 25.3472 14.5379
53.745 25.6108 14.5818
54.0715 25.8619 14.5944
54.3979 26.1193 14.6383
54.7557 26.3955 14.6634
55.0695 26.6403 14.6383
55.4022 26.8976 14.6823
55.7286 27.155 14.6886
56.0488 27.3998 14.6697
56.3563 27.6446 14.7137
56.7079 27.9145 14.8078
57.0217 28.1593 14.7827
57.3105 28.3853 14.789
57.6243 28.6301 14.745
57.9759 28.9 14.7513
58.3336 29.1825 14.8831
58.6852 29.4524 14.9396
59.0304 29.7224 14.971
59.3757 29.986 15.0966
59.7021 30.2496 15.0903
60.0097 30.4819 15.0652
60.2921 30.7079 15.0715
60.5934 30.9401 15.0464
60.9198 31.1912 15.015
61.2023 31.4172 14.9585
61.4973 31.6432 14.8894
61.8112 31.888 14.8455
62.1188 32.1265 14.8706
62.4201 32.3588 14.7953
62.7465 32.6161 14.8455
63.029 32.8358 14.8329
63.324 33.0681 14.7827
63.5625 33.2501 14.5881
63.8638 33.4824 14.607
64.2153 33.7586 14.6007
64.4539 33.9469 14.4061
64.8493 34.2545 14.6258
65.1067 34.4553 14.4689
65.4896 34.7504 14.607
65.8223 35.014 14.7262
66.1299 35.2525 14.7011
66.4437 35.4973 14.6823
66.7199 35.7108 14.6886
67.0526 35.9681 14.676
67.3665 36.2129 14.607
67.6238 36.4138 14.5442
67.9189 36.6461 14.4437
68.1951 36.8595 14.3308
68.4085 37.029 14.1487
68.6156 37.1922 13.8725
68.8856 37.3993 13.7721
69.1178 37.5814 13.6528
69.3626 37.7697 13.5022
69.6451 37.9894 13.3892
69.9276 38.2091 13.3076
70.1912 38.4162 13.1569
70.4423 38.6171 13.0188
70.7059 38.818 12.9247
70.9696 39.0251 12.7615
71.252 39.2448 12.705
71.4655 39.408 12.5355
71.7793 39.6528 12.5167
72.1057 39.9102 12.5606
72.407 40.1424 12.5732
72.6581 40.337 12.3535
72.8527 40.494 12.0459
73.1477 40.7199 12.0459
73.3486 40.8769 11.732
73.5558 41.0401 11.4746
73.8822 41.2974 11.5814
74.2463 41.5799 11.6818
74.5852 41.8373 11.7508
74.8175 42.0256 11.6379
75.1313 42.2641 11.5939
75.4264 42.4964 11.4935
75.6963 42.7098 11.437
75.9662 42.9169 11.2926
76.2173 43.1115 11.1231
76.6253 43.4317 11.4056
77.2216 43.8962 11.3303
77.4162 44.0468 11.1231
77.705 44.2665 11.0541
78.0377 44.5239 11.0666
79.0608 45.3148 12.8054
78.3955 44.8001 11.1922
79.3433 45.5345 12.705
79.7199 45.8295 12.8431
79.971 46.0241 12.7238
80.6992 46.5891 12.9435
80.9251 46.7711 12.8368
80.3477 46.3192 11.4307
81.2265 47.0034 12.7803
80.6176 46.5326 11.2989
81.5717 47.2733 12.8996
81.9483 47.562 13.1004
82.2434 47.7943 12.9937
82.4693 47.9701 12.7552
82.6953 48.1458 12.592
82.8773 48.2902 12.2279
83.097 48.4597 12.0208
83.6871 48.9179 12.7552
84.0449 49.1941 12.8556
84.252 49.3636 12.6296
84.7668 49.759 13.2134
85.1183 50.0352 13.2636
86.0222 50.7383 13.1444
85.6707 50.4684 12.2781
86.3235 50.9705 13.1193
86.9324 51.4413 13.9102
86.6688 51.2405 13.2574
87.1772 51.6359 13.7156
87.4346 51.8368 13.6026
87.9242 52.2134 14.1362
88.3385 52.5398 14.3935
88.9976 53.0546 14.4877
89.3868 53.3559 14.6258
89.9015 53.7513 15.1342
91.1695 54.7368 17.5572
92.0294 55.4085 18.8943
36.1753 11.437 12.0208
36.5393 11.7195 12.0835
36.8595 11.9705 12.0773
37.1985 12.2342 12.1086
37.5437 12.4978 12.1463
37.8764 12.7615 12.184
38.1902 13.0063 12.1965
38.4978 13.2448 12.1714
38.7929 13.4771 12.1526
39.1444 13.747 12.1902
39.4645 13.9981 12.1463
39.8286 14.2805 12.2028
40.1613 14.5379 12.2405
40.5379 14.8329 12.3346
40.902 15.1154 12.4162
41.2598 15.3916 12.5292
41.6301 15.6803 12.6548
42.0319 15.9942 12.8368
42.4085 16.2892 13.0251
42.76 16.5591 13.0565
43.1115 16.8353 13.0628
43.4442 17.0927 13.1004
43.7769 17.3563 13.0942
44.1222 17.62 13.1381
44.4172 17.8522 13.0879
44.7185 18.0845 13.0439
45.0261 18.323 13.0377
45.3337 18.5616 13.0439
45.6287 18.7938 13.0126
45.9551 19.0449 13.0063
46.3003 19.3148 13.0377
46.6267 19.5722 13.0251
46.9594 19.8295 13.0314
47.2796 20.0806 13.0565
47.5997 20.3254 13.0314
47.9324 20.5891 13.0753
48.4408 20.9845 13.5398
48.8426 21.2921 13.7407
49.2192 21.5872 13.8914
49.6021 21.8885 14.0232
49.9536 22.1584 14.0608
50.2926 22.422 14.0797
50.6441 22.6982 14.1487
50.958 22.943 14.1236
51.2907 23.2004 14.1424
51.5794 23.4264 14.1048
51.9121 23.6837 14.1738
52.295 23.985 14.3119
52.6152 24.2298 14.381
52.973 24.5123 14.4312
53.3182 24.776 14.45
53.6195 25.0082 14.3873
53.9145 25.2405 14.337
54.2409 25.4978 14.3496
54.5674 25.7489 14.3684
54.8938 26 14.3935
55.2013 26.2448 14.4061
55.5403 26.5084 14.4626
55.8856 26.7784 14.5818
56.1994 27.0232 14.5379
56.5133 27.268 14.5065
56.8648 27.5379 14.5442
57.1787 27.7827 14.5316
57.4925 28.0275 14.5379
57.7938 28.2598 14.494
58.1265 28.5234 14.5316
58.4592 28.7808 14.6132
58.8295 29.0695 14.7576
59.156 29.3206 14.8078
59.5012 29.5905 14.8329
59.8276 29.8479 14.8267
60.1917 30.1241 14.902
60.4993 30.3689 14.9083
60.8069 30.6074 14.858
61.083 30.8209 14.7764
61.3655 31.0406 14.7199
61.6354 31.254 14.6446
61.943 31.4925 14.6321
62.2192 31.7059 14.6007
62.5519 31.9696 14.5944
62.8909 32.2332 14.6195
63.211 32.4843 14.6132
63.506 32.7103 14.5756
63.7885 32.93 14.4689
64.0773 33.156 14.4186
64.3158 33.338 14.2429
64.6234 33.5828 14.2554
64.9435 33.8339 14.3056
65.2762 34.0913 14.3747
65.521 34.2796 14.1676
66.0043 34.6562 14.5379
66.3119 34.8947 14.5191
66.6195 35.1333 14.4814
66.9334 35.3781 14.4877
67.2472 35.6229 14.4626
67.536 35.8489 14.4186
67.7996 36.056 14.3496
68.0884 36.282 14.2931
68.3583 36.4891 14.224
68.6094 36.6837 14.0608
68.8604 36.8783 13.8725
69.0927 37.0604 13.6717
69.3061 37.2298 13.4394
69.5698 37.4307 13.3013
69.8648 37.663 13.2511
70.1284 37.8701 13.1758
70.3984 38.0835 13.0816
70.662 38.2844 12.9874
70.8691 38.4476 12.774
71.1139 38.6359 12.5732
71.409 38.8682 12.4853
71.7103 39.1004 12.4602
72.0492 39.3641 12.5041
72.3443 39.5963 12.4476
72.6079 39.7972 12.3409
72.8339 39.973 12.1526
73.0285 40.1299 11.9078
73.311 40.3496 11.845
73.4867 40.4877 11.55
73.7001 40.6509 11.2863
74.083 40.9459 11.4119
74.4597 41.2472 11.5563
74.8112 41.5171 11.6441
75.1125 41.7494 11.6127
75.4012 41.9754 11.5751
75.6586 42.1762 11.4307
75.916 42.3771 11.3617
76.1733 42.578 11.2298
76.4181 42.7663 11.098
76.8575 43.1115 11.3868
77.2656 43.4254 11.5688
77.479 43.5949 11.3366
77.6485 43.7267 10.9913
78.0439 44.028 11.1859
78.3201 44.2477 11.0855
78.6716 44.5176 11.1985
79.5756 45.2144 12.6673
79.337 45.0323 12.0961
78.9667 44.7499 11.2047
79.7199 45.3274 12.2781
80.6176 46.0241 12.9623
80.9628 46.3003 13.0188
81.1197 46.4196 12.6359
81.4148 46.6519 12.5983
80.8812 46.2376 11.2989
82.1931 47.2545 12.9749
82.4317 47.4428 12.7991
82.5698 47.5495 12.4162
82.0927 47.1791 11.2549
82.7455 47.6876 11.3742
83.3293 48.1395 12.0208
83.7122 48.4408 12.1902
84.2332 48.8426 12.6548
84.9174 49.3761 12.8493
85.3129 49.6837 13.0565
85.6519 49.9474 13.1067
86.3549 50.4935 12.6736
86.9575 50.9643 13.3704
87.2337 51.1777 13.2448
87.466 51.366 13.0502
88.3071 52.0125 14.381
88.6084 52.2511 14.3433
88.916 52.4896 14.3559
89.2236 52.7281 14.3684
89.5437 52.973 14.4061
90.1651 53.4626 15.2221
89.845 53.2115 14.4249
90.435 53.6697 15.1845
92.7639 55.4713 19.3525
36.2506 11.0478 11.7822
36.577 11.2989 11.8136
36.8846 11.5437 11.8073
37.1985 11.7822 11.8073
37.5625 12.071 11.8889
37.9643 12.3848 12.0019
38.297 12.6422 12.0145
38.6171 12.8933 12.027
38.9435 13.1444 11.9957
39.2385 13.3766 11.9392
39.5147 13.5901 11.8701
39.8411 13.8411 11.8827
40.1738 14.1048 11.9203
40.5065 14.3621 11.9894
40.8769 14.6509 12.0584
41.2661 14.9522 12.1777
41.6176 15.2284 12.2405
42.0068 15.5297 12.366
42.3959 15.831 12.4978
42.7788 16.126 12.6422
43.099 16.3771 12.6485
43.3877 16.6031 12.592
43.7079 16.8542 12.6171
43.9966 17.0739 12.5732
44.3356 17.3375 12.592
44.6683 17.6012 12.5983
44.9947 17.8522 12.5794
45.3274 18.1096 12.6045
45.6412 18.3544 12.5732
45.9676 18.6118 12.5794
46.2501 18.8315 12.5292
46.6079 19.1077 12.6485
46.9155 19.3525 12.6045
47.2168 19.5847 12.6045
47.5432 19.8358 12.5983
47.9449 20.1497 12.7426
48.4911 20.5765 13.2385
48.9242 20.9092 13.4833
49.3071 21.2105 13.6089
49.6272 21.4553 13.6152
49.9913 21.7441 13.7533
50.3052 21.9826 13.747
50.619 22.2337 13.7533
50.9266 22.4722 13.7909
51.2907 22.7547 13.8411
51.6485 23.0309 13.8788
52 23.3071 13.9541
52.4017 23.6147 14.1362
52.7721 23.9034 14.2303
53.0922 24.1545 14.2429
53.3747 24.3742 14.1801
53.6572 24.5939 14.1173
53.9522 24.8262 14.0922
54.2661 25.0647 14.1111
54.6176 25.3472 14.1738
54.9628 25.6108 14.2115
55.3018 25.8745 14.2178
55.6094 26.113 14.1989
55.9797 26.4017 14.3056
56.3187 26.6654 14.3559
56.6263 26.9039 14.3496
56.9276 27.1424 14.3621
57.2351 27.381 14.3308
57.5113 27.5944 14.268
57.8315 27.8392 14.2617
58.1704 28.1091 14.268
58.4906 28.3539 14.2617
58.8547 28.6427 14.3747
59.2062 28.9126 14.4375
59.5514 29.1825 14.5128
59.9029 29.4524 14.6007
60.2294 29.7098 14.6383
60.5432 29.9546 14.6697
60.8257 30.1743 14.6321
61.1082 30.394 14.5128
61.4095 30.6325 14.4563
61.7233 30.8711 14.4375
62.0246 31.1096 14.3873
62.3385 31.3481 14.3747
62.6461 31.5929 14.3496
62.9411 31.8189 14.3245
63.2424 32.0575 14.3182
63.5562 32.3023 14.3308
63.8262 32.5094 14.2554
64.1024 32.7228 14.1424
64.3597 32.9237 13.9855
64.6861 33.1811 13.9792
65.0314 33.451 14.0546
65.3578 33.7021 14.0859
65.6779 33.9532 14.0859
66.0232 34.2231 14.1801
66.3308 34.4616 14.2115
66.6446 34.7064 14.1864
66.9459 34.9387 14.2052
67.2723 35.196 14.2178
67.5862 35.4408 14.1613
67.8938 35.6794 14.1424
68.1825 35.8991 14.0922
68.4964 36.1439 14.0546
68.7537 36.3448 13.9227
68.9923 36.5331 13.7721
69.2496 36.7339 13.6591
69.4442 36.8846 13.3766
69.6576 37.0541 13.2134
69.9338 37.2675 13.0816
70.2414 37.506 13.0314
70.5553 37.7508 13.0251
70.8252 37.9643 12.9058
71.0512 38.14 12.6987
71.2834 38.3158 12.4978
71.5722 38.5418 12.4476
71.8609 38.7677 12.4413
72.1685 39.0126 12.4539
72.4133 39.2009 12.3032
72.6456 39.3766 12.0835
72.928 39.5963 11.9894
73.1415 39.7658 11.7257
73.2168 39.8223 11.1608
73.4491 40.0106 10.9662
73.8068 40.2868 11.0729
74.1835 40.5818 11.2361
74.5287 40.8455 11.3679
74.8928 41.1342 11.4872
75.2129 41.379 11.5563
75.5456 41.6364 11.5814
75.8469 41.8749 11.4998
76.098 42.0695 11.3303
76.3303 42.2516 11.1733
76.5939 42.4524 11.0164
77.0459 42.804 11.3679
77.3095 43.0111 11.2675
77.5229 43.1743 11.0352
77.7928 43.3877 10.9788
78.1381 43.6514 11.1043
78.4206 43.8711 10.985
78.7972 44.1598 11.1106
79.0608 44.367 10.9976
79.4124 44.6432 11.0855
80.2033 45.2583 12.2405
81.0068 45.886 12.6799
81.3269 46.1309 12.0208
81.647 46.3819 12.0773
82.1806 46.7962 11.8073
81.9169 46.5954 11.1733
82.2434 46.8464 11.1608
82.8773 47.3423 11.958
82.8522 47.3172 11.142
83.3858 47.7378 11.7006
83.9696 48.1898 12.3848
84.2709 48.422 12.3911
84.635 48.7045 12.5418
84.9237 48.9305 12.5229
85.8213 49.6272 13.1318
85.5326 49.4075 12.4225
86.0159 49.7842 12.8556
86.7064 50.3177 13.0063
86.9575 50.5123 12.887
87.2776 50.7634 12.931
87.648 51.0521 13.1004
87.9744 51.3095 13.182
88.3573 51.6045 13.4143
88.69 51.8619 13.4268
89.1294 52.2009 13.7156
89.3805 52.4017 13.5649
89.9894 52.8725 14.2868
89.6378 52.5963 13.408
91.2887 53.8769 16.7412
90.6296 53.3684 15.1154
92.2931 54.6552 18.5113
92.8078 55.057 19.0135
93.4293 55.5403 19.8609
36.5519 10.8658 11.2989
36.8909 11.1294 11.3366
37.2424 11.3993 11.3617
37.5688 11.6567 11.4182
37.914 11.9266 11.506
38.2718 12.2091 11.5374
38.548 12.4162 11.4998
38.9121 12.6987 11.6065
39.2825 12.9874 11.6065
39.6277 13.2574 11.6881
39.929 13.4959 11.6379
40.2805 13.7658 11.6441
40.6007 14.0169 11.663
40.9522 14.2931 11.7634
41.3163 14.5756 11.8324
41.6741 14.8518 11.9454
41.9942 15.0966 12.0019
42.3646 15.3916 12.0333
42.691 15.6427 12.0521
43.0802 15.944 12.1902
43.4066 16.1951 12.1463
43.7141 16.4399 12.1463
44.0406 16.691 12.1651
44.3795 16.9546 12.1651
44.6745 17.1869 12.1714
44.9821 17.4254 12.1714
45.3085 17.6765 12.1651
45.6224 17.9213 12.1589
45.9676 18.1912 12.1965
46.3066 18.4549 12.1777
46.6519 18.7248 12.2467
46.972 18.9759 12.2593
47.2984 19.2269 12.2216
47.606 19.4655 12.2467
47.9198 19.7103 12.2656
48.4597 20.1309 12.7238
48.8551 20.4384 12.9749
49.2694 20.7586 13.1569
49.6837 21.0787 13.2887
50.0101 21.3361 13.3327
50.3617 21.6123 13.4017
50.7132 21.8822 13.4206
51.027 22.127 13.4771
51.3974 22.4157 13.5587
51.7301 22.6794 13.6026
52.069 22.9367 13.703
52.4206 23.2067 13.816
52.816 23.5142 13.9039
53.155 23.7779 13.9667
53.4689 24.029 13.9416
53.7953 24.2801 13.9165
54.0715 24.4935 13.8411
54.3979 24.7508 13.8662
54.7055 24.9894 13.8098
55.057 25.2656 13.9792
55.3834 25.5167 14.0043
55.6972 25.7615 13.9792
56.0111 26.0063 13.9855
56.4191 26.3201 14.155
56.733 26.5649 14.0922
57.0468 26.8098 14.1299
57.367 27.0608 14.1111
57.6808 27.3056 14.0546
57.9633 27.5191 14.0483
58.2772 27.7702 14.0797
58.6161 28.0338 14.0859
58.9049 28.2598 14.1299
59.2376 28.5171 14.1236
59.6016 28.7996 14.1424
59.9406 29.0633 14.2178
60.2733 29.3206 14.2492
60.6499 29.6156 14.3496
60.9324 29.8353 14.3119
61.2149 30.055 14.2429
61.5224 30.2936 14.2115
61.8112 30.5196 14.2115
62.1125 30.7518 14.1989
62.4264 30.9966 14.1487
62.7277 31.2289 14.1236
63.0415 31.4737 14.0797
63.3491 31.7185 14.0483
63.6818 31.9696 14.0922
63.958 32.1893 14.0043
64.2153 32.3901 13.8474
64.4978 32.6098 13.8474
64.8431 32.8735 13.9102
65.182 33.1434 13.9918
65.5084 33.3945 14.0295
65.8662 33.6707 14.0671
66.2052 33.9343 14.0734
66.5128 34.1791 14.1299
66.8141 34.4114 14.0483
67.1217 34.6499 13.9981
67.4041 34.8696 14.0043
67.6741 35.083 13.9227
68.0068 35.3404 13.9227
68.2641 35.5413 13.8662
68.5717 35.7798 13.8286
68.873 36.0121 13.7156
69.1115 36.2004 13.5901
69.3877 36.4138 13.4959
69.6451 36.6147 13.3076
69.8648 36.7842 13.1318
70.1159 36.985 12.9874
70.4109 37.211 12.9372
70.6871 37.4244 12.9058
70.9445 37.6253 12.8242
71.2269 37.845 12.661
71.4404 38.0145 12.4351
71.7479 38.253 12.3786
72.0744 38.5104 12.3974
72.3505 38.7238 12.3409
72.5765 38.8996 12.1275
72.8151 39.0816 11.9266
72.9908 39.226 11.6943
73.1791 39.3703 11.393
73.38 39.5273 11.1294
73.5809 39.6842 10.872
73.9073 39.9353 10.8595
74.3341 40.268 11.0666
74.6919 40.5442 11.2298
75.0623 40.8392 11.3554
75.4075 41.1028 11.3993
75.759 41.379 11.55
76.0227 41.5862 11.4495
76.2738 41.7808 11.2989
76.4684 41.9314 11.1043
76.7383 42.1386 10.9599
77.0019 42.3457 10.7904
77.297 42.5717 10.7528
77.6296 42.8353 10.7904
77.9812 43.1053 10.8407
78.2009 43.281 10.6774
78.5273 43.5258 10.7026
78.9855 43.8836 11.0604
79.2178 44.0657 10.9348
79.5128 44.2916 10.9285
80.2535 44.8691 11.8952
79.9082 44.6055 11.0666
80.9314 45.3964 12.0082
81.2076 45.6098 11.8764
81.5466 45.8735 12.0333
81.8416 46.0995 11.958
82.1366 46.3317 11.8952
82.3815 46.5263 11.8387
82.6074 46.7021 11.6253
83.0594 47.0536 11.9705
82.6576 46.7397 10.9788
83.0782 47.0661 11.2926
83.5616 47.4428 11.663
83.9068 47.7127 11.6881
84.4215 48.1144 12.2405
84.8735 48.466 12.5732
85.1748 48.6919 12.5167
85.3882 48.8677 12.3472
85.6958 49.1062 12.3535
86.0724 49.395 12.4915
86.3988 49.6461 12.6359
86.7064 49.8909 12.5794
86.3172 49.5896 11.6253
87.0705 50.1733 12.661
87.4911 50.4935 12.9623
87.8865 50.8073 13.1444
88.1627 51.0208 13.0439
88.4954 51.2781 13.1507
88.803 51.5167 13.1318
89.1733 51.8054 13.3013
89.5374 52.0942 13.5147
89.8073 52.295 13.4394
90.7866 53.0608 15.0338
90.1714 52.5838 13.5147
92.3872 54.2974 18.2854
92.9082 54.7055 18.7562
93.6427 55.2704 19.7856
94.0821 55.6156 20.1811
36.3008 10.1564 10.4389
36.5393 10.3385 10.3259
37.1545 10.8218 10.9034
37.4495 11.0478 10.7967
37.6253 11.1859 10.4829
38.3283 11.732 11.2989
38.6234 11.958 11.211
39.747 12.8368 10.9348
40.0985 13.1067 11.0039
40.4061 13.3515 10.9223
41.1468 13.9227 11.0917
41.8561 14.4751 11.2424
42.1888 14.7325 11.2361
42.5529 15.015 11.324
43.4882 15.7494 11.3366
44.1975 16.2955 11.4307
44.8817 16.8291 11.5311
45.2395 17.1115 11.5625
45.5847 17.3752 11.6002
45.8986 17.62 11.6441
46.2125 17.8648 11.6316
46.5577 18.1284 11.6755
46.8778 18.3795 11.7571
47.2042 18.6306 11.7069
47.562 18.9131 11.7697
47.8759 19.1579 11.7822
48.3279 19.5094 12.0396
48.8551 19.9174 12.4727
49.2443 20.2187 12.6673
49.6147 20.5138 12.7615
49.9662 20.7837 12.8745
50.3177 21.0536 12.9749
50.6441 21.311 13.0063
51.0145 21.5997 13.0879
51.3534 21.8571 13.1381
51.7364 22.1584 13.2323
52.0753 22.422 13.2699
52.4708 22.7296 13.4582
52.8537 23.0246 13.5649
53.1738 23.2757 13.6026
53.5002 23.5331 13.6654
53.8141 23.7779 13.6465
54.128 24.0164 13.6654
54.4606 24.2801 13.7156
54.8059 24.55 13.703
55.126 24.7948 13.6779
55.465 25.0584 13.7846
55.804 25.3221 13.7784
56.1492 25.592 13.8349
56.507 25.8682 13.973
56.8146 26.113 13.9667
57.1222 26.3515 13.9353
57.3984 26.5649 13.9039
57.7248 26.816 13.8851
58.0512 27.0734 13.8662
58.365 27.3119 13.8725
58.6726 27.5567 13.8098
58.9865 27.8015 13.7909
59.2815 28.0275 13.7846
59.5954 28.2723 13.7407
59.8716 28.4858 13.6717
60.2231 28.7619 13.816
60.5307 29.0005 13.7972
60.8696 29.2704 13.8349
61.1772 29.5027 13.8223
61.5287 29.7788 13.8286
61.8363 30.0174 13.8035
62.1062 30.2308 13.7533
62.4515 30.4944 13.7595
62.7465 30.7267 13.7281
63.0352 30.9464 13.7219
63.3303 31.1787 13.6528
63.6002 31.3858 13.5775
63.8889 31.6181 13.5524
64.3095 31.9445 13.7093
64.6924 32.2395 13.8537
65.0125 32.4843 13.9165
65.3892 32.7793 13.9918
65.7407 33.0555 14.0734
66.0483 33.2941 14.1173
66.3496 33.5263 14.0671
66.6383 33.7523 14.0169
66.902 33.9594 14.0043
67.197 34.1854 13.8788
67.4795 34.4114 13.7721
